# .PCD v0.7 - Point Cloud Data file format
VERSION 0.7
FIELDS x y z
SIZE 4 4 4
TYPE F F F
COUNT 1 1 1
WIDTH 1706
HEIGHT 1
VIEWPOINT 0 0 0 1 0 0 0
POINTS 1706
DATA ascii
4.1645889 -5.2618456 1.9499999
4.1645889 -5.2618456 2
4.1645889 -5.2618456 2.05
4.1645889 -5.2618456 2.0999999
4.1645889 -5.2618456 2.1500001
4.1645889 -5.2618456 2.2
4.1645889 -5.2618456 2.25
4.1645889 -5.2618456 2.3
4.1645889 -5.2618456 2.3499999
4.1645889 -5.2618456 2.4000001
4.1645889 -5.2618456 2.45
4.1645889 -5.2618456 2.5
4.1645889 -5.2618456 2.55
4.1645889 -5.2618456 2.5999999
4.1645889 -5.3117208 0.050000001
4.1645889 -5.3117208 0.1
4.1645889 -5.3117208 0.15000001
4.1645889 -5.3117208 0.2
4.1645889 -5.3117208 0.25
4.1645889 -5.3117208 0.30000001
4.1645889 -5.3117208 0.35000002
4.1645889 -5.3117208 0.40000001
4.1645889 -5.3117208 0.45000002
4.1645889 -5.3117208 0.5
4.1645889 -5.3117208 0.55000001
4.1645889 -5.3117208 0.60000002
4.1645889 -5.3117208 0.65000004
4.1645889 -5.3117208 0.70000005
4.1645889 -5.3117208 0.75
4.1645889 -5.3117208 0.80000001
4.1645889 -5.3117208 0.85000002
4.1645889 -5.3117208 0.90000004
4.1645889 -5.3117208 0.95000005
4.1645889 -5.3117208 1
4.1645889 -5.3117208 1.05
4.1645889 -5.3117208 1.1
4.1645889 -5.3117208 1.15
4.1645889 -5.3117208 1.1999999
4.1645889 -5.3117208 1.25
4.1645889 -5.3117208 1.3
4.1645889 -5.3117208 1.35
4.1645889 -5.3117208 1.4
4.1645889 -5.3117208 1.4499999
4.1645889 -5.3117208 1.5
4.1645889 -5.3117208 1.55
4.1645889 -5.3117208 1.6
4.1645889 -5.3117208 1.65
4.1645889 -5.3117208 1.6999999
4.1645889 -5.3117208 1.75
4.1645889 -5.3117208 1.8
4.1645889 -5.3117208 1.85
4.1645889 -5.3117208 1.9
4.1645889 -5.3117208 1.9499999
4.1645889 -5.3117208 2
4.1645889 -5.3117208 2.05
4.1645889 -5.3117208 2.0999999
4.1645889 -5.3117208 2.1500001
4.1645889 -5.3117208 2.2
4.1645889 -5.3117208 2.25
4.1645889 -5.3117208 2.3
4.1645889 -5.3117208 2.3499999
4.1645889 -5.3117208 2.4000001
4.1645889 -5.3117208 2.45
4.1645889 -5.3117208 2.5
4.1645889 -5.3117208 2.55
4.1645889 -5.3117208 2.5999999
4.1645889 -5.3615961 0.050000001
4.1645889 -5.3615961 0.1
4.1645889 -5.3615961 0.15000001
4.1645889 -5.3615961 0.2
4.1645889 -5.3615961 0.25
4.1645889 -5.3615961 0.30000001
4.1645889 -5.3615961 0.35000002
4.1645889 -5.3615961 0.40000001
4.1645889 -5.3615961 0.45000002
4.1645889 -5.3615961 0.5
4.1645889 -5.3615961 0.55000001
4.1645889 -5.3615961 0.60000002
4.1645889 -5.3615961 0.65000004
4.1645889 -5.3615961 0.70000005
4.1645889 -5.3615961 0.75
4.1645889 -5.3615961 0.80000001
4.1645889 -5.3615961 0.85000002
4.1645889 -5.3615961 0.90000004
4.1645889 -5.3615961 0.95000005
4.1645889 -5.3615961 1
4.1645889 -5.3615961 1.05
4.1645889 -5.3615961 1.1
4.1645889 -5.3615961 1.15
4.1645889 -5.3615961 1.1999999
4.1645889 -5.3615961 1.25
4.1645889 -5.3615961 1.3
4.1645889 -5.3615961 1.35
4.1645889 -5.3615961 1.4
4.1645889 -5.3615961 1.4499999
4.1645889 -5.3615961 1.5
4.1645889 -5.3615961 1.55
4.1645889 -5.3615961 1.6
4.1645889 -5.3615961 1.65
4.1645889 -5.3615961 1.6999999
4.1645889 -5.3615961 1.75
4.1645889 -5.3615961 1.8
4.1645889 -5.3615961 1.85
4.1645889 -5.3615961 1.9
4.1645889 -5.3615961 1.9499999
4.1645889 -5.3615961 2
4.1645889 -5.3615961 2.05
4.1645889 -5.3615961 2.0999999
4.1645889 -5.3615961 2.1500001
4.1645889 -5.3615961 2.2
4.1645889 -5.3615961 2.25
4.1645889 -5.3615961 2.3
4.1645889 -5.3615961 2.3499999
4.1645889 -5.3615961 2.4000001
4.1645889 -5.3615961 2.45
4.1645889 -5.3615961 2.5
4.1645889 -5.3615961 2.55
4.1645889 -5.3615961 2.5999999
4.1645889 -5.4114714 0.050000001
4.1645889 -5.4114714 0.1
4.1645889 -5.4114714 0.15000001
4.1645889 -5.4114714 0.2
4.1645889 -5.4114714 0.25
4.1645889 -5.4114714 0.30000001
4.1645889 -5.4114714 0.35000002
4.1645889 -5.4114714 0.40000001
4.1645889 -5.4114714 0.45000002
4.1645889 -5.4114714 0.5
4.1645889 -5.4114714 0.55000001
4.1645889 -5.4114714 0.60000002
4.1645889 -5.4114714 0.65000004
4.1645889 -5.4114714 0.70000005
4.1645889 -5.4114714 0.75
4.1645889 -5.4114714 0.80000001
4.1645889 -5.4114714 0.85000002
4.1645889 -5.4114714 0.90000004
4.1645889 -5.4114714 0.95000005
4.1645889 -5.4114714 1
4.1645889 -5.4114714 1.05
4.1645889 -5.4114714 1.1
4.1645889 -5.4114714 1.15
4.1645889 -5.4114714 1.1999999
4.1645889 -5.4114714 1.25
4.1645889 -5.4114714 1.3
4.1645889 -5.4114714 1.35
4.1645889 -5.4114714 1.4
4.1645889 -5.4114714 1.4499999
4.1645889 -5.4114714 1.5
4.1645889 -5.4114714 1.55
4.1645889 -5.4114714 1.6
4.1645889 -5.4114714 1.65
4.1645889 -5.4114714 1.6999999
4.1645889 -5.4114714 1.75
4.1645889 -5.4114714 1.8
4.1645889 -5.4114714 1.85
4.1645889 -5.4114714 1.9
4.1645889 -5.4114714 1.9499999
4.1645889 -5.4114714 2
4.1645889 -5.4114714 2.05
4.1645889 -5.4114714 2.0999999
4.1645889 -5.4114714 2.1500001
4.1645889 -5.4114714 2.2
4.1645889 -5.4114714 2.25
4.1645889 -5.4114714 2.3
4.1645889 -5.4114714 2.3499999
4.1645889 -5.4114714 2.4000001
4.1645889 -5.4114714 2.45
4.1645889 -5.4114714 2.5
4.1645889 -5.4114714 2.55
4.1645889 -5.4114714 2.5999999
4.1645889 -5.4613466 0.050000001
4.1645889 -5.4613466 0.1
4.1645889 -5.4613466 0.15000001
4.1645889 -5.4613466 0.2
4.1645889 -5.4613466 0.25
4.1645889 -5.4613466 0.30000001
4.1645889 -5.4613466 0.35000002
4.1645889 -5.4613466 0.40000001
4.1645889 -5.4613466 0.45000002
4.1645889 -5.4613466 0.5
4.1645889 -5.4613466 0.55000001
4.1645889 -5.4613466 0.60000002
4.1645889 -5.4613466 0.65000004
4.1645889 -5.4613466 0.70000005
4.1645889 -5.4613466 0.75
4.1645889 -5.4613466 0.80000001
4.1645889 -5.4613466 0.85000002
4.1645889 -5.4613466 0.90000004
4.1645889 -5.4613466 0.95000005
4.1645889 -5.4613466 1
4.1645889 -5.4613466 1.05
4.1645889 -5.4613466 1.1
4.1645889 -5.4613466 1.15
4.1645889 -5.4613466 1.1999999
4.1645889 -5.4613466 1.25
4.1645889 -5.4613466 1.3
4.1645889 -5.4613466 1.35
4.1645889 -5.4613466 1.4
4.1645889 -5.4613466 1.4499999
4.1645889 -5.4613466 1.5
4.1645889 -5.4613466 1.55
4.1645889 -5.4613466 1.6
4.1645889 -5.4613466 1.65
4.1645889 -5.4613466 1.6999999
4.1645889 -5.4613466 1.75
4.1645889 -5.4613466 1.8
4.1645889 -5.4613466 1.85
4.1645889 -5.4613466 1.9
4.1645889 -5.4613466 1.9499999
4.1645889 -5.4613466 2
4.1645889 -5.4613466 2.05
4.1645889 -5.4613466 2.0999999
4.1645889 -5.4613466 2.1500001
4.1645889 -5.4613466 2.2
4.1645889 -5.4613466 2.25
4.1645889 -5.4613466 2.3
4.1645889 -5.4613466 2.3499999
4.1645889 -5.4613466 2.4000001
4.1645889 -5.4613466 2.45
4.1645889 -5.4613466 2.5
4.1645889 -5.4613466 2.55
4.1645889 -5.4613466 2.5999999
4.1645889 -5.5112219 0.050000001
4.1645889 -5.5112219 0.1
4.1645889 -5.5112219 0.15000001
4.1645889 -5.5112219 0.2
4.1645889 -5.5112219 0.25
4.1645889 -5.5112219 0.30000001
4.1645889 -5.5112219 0.35000002
4.1645889 -5.5112219 0.40000001
4.1645889 -5.5112219 0.45000002
4.1645889 -5.5112219 0.5
4.1645889 -5.5112219 0.55000001
4.1645889 -5.5112219 0.60000002
4.1645889 -5.5112219 0.65000004
4.1645889 -5.5112219 0.70000005
4.1645889 -5.5112219 0.75
4.1645889 -5.5112219 0.80000001
4.1645889 -5.5112219 0.85000002
4.1645889 -5.5112219 0.90000004
4.1645889 -5.5112219 0.95000005
4.1645889 -5.5112219 1
4.1645889 -5.5112219 1.05
4.1645889 -5.5112219 1.1
4.1645889 -5.5112219 1.15
4.1645889 -5.5112219 1.1999999
4.1645889 -5.5112219 1.25
4.1645889 -5.5112219 1.3
4.1645889 -5.5112219 1.35
4.1645889 -5.5112219 1.4
4.1645889 -5.5112219 1.4499999
4.1645889 -5.5112219 1.5
4.1645889 -5.5112219 1.55
4.1645889 -5.5112219 1.6
4.1645889 -5.5112219 1.65
4.1645889 -5.5112219 1.6999999
4.1645889 -5.5112219 1.75
4.1645889 -5.5112219 1.8
4.1645889 -5.5112219 1.85
4.1645889 -5.5112219 1.9
4.1645889 -5.5112219 1.9499999
4.1645889 -5.5112219 2
4.1645889 -5.5112219 2.05
4.1645889 -5.5112219 2.0999999
4.1645889 -5.5112219 2.1500001
4.1645889 -5.5112219 2.2
4.1645889 -5.5112219 2.25
4.1645889 -5.5112219 2.3
4.1645889 -5.5112219 2.3499999
4.1645889 -5.5112219 2.4000001
4.1645889 -5.5112219 2.45
4.1645889 -5.5112219 2.5
4.1645889 -5.5112219 2.55
4.1645889 -5.5112219 2.5999999
4.1645889 -5.5610971 0.050000001
4.1645889 -5.5610971 0.1
4.1645889 -5.5610971 0.15000001
4.1645889 -5.5610971 0.2
4.1645889 -5.5610971 0.25
4.1645889 -5.5610971 0.30000001
4.1645889 -5.5610971 0.35000002
4.1645889 -5.5610971 0.40000001
4.1645889 -5.5610971 0.45000002
4.1645889 -5.5610971 0.5
4.1645889 -5.5610971 0.55000001
4.1645889 -5.5610971 0.60000002
4.1645889 -5.5610971 0.65000004
4.1645889 -5.5610971 0.70000005
4.1645889 -5.5610971 0.75
4.1645889 -5.5610971 0.80000001
4.1645889 -5.5610971 0.85000002
4.1645889 -5.5610971 0.90000004
4.1645889 -5.5610971 0.95000005
4.1645889 -5.5610971 1
4.1645889 -5.5610971 1.05
4.1645889 -5.5610971 1.1
4.1645889 -5.5610971 1.15
4.1645889 -5.5610971 1.1999999
4.1645889 -5.5610971 1.25
4.1645889 -5.5610971 1.3
4.1645889 -5.5610971 1.35
4.1645889 -5.5610971 1.4
4.1645889 -5.5610971 1.4499999
4.1645889 -5.5610971 1.5
4.1645889 -5.5610971 1.55
4.1645889 -5.5610971 1.6
4.1645889 -5.5610971 1.65
4.1645889 -5.5610971 1.6999999
4.1645889 -5.5610971 1.75
4.1645889 -5.5610971 1.8
4.1645889 -5.5610971 1.85
4.1645889 -5.5610971 1.9
4.1645889 -5.5610971 1.9499999
4.1645889 -5.5610971 2
4.1645889 -5.5610971 2.05
4.1645889 -5.5610971 2.0999999
4.1645889 -5.5610971 2.1500001
4.1645889 -5.5610971 2.2
4.1645889 -5.5610971 2.25
4.1645889 -5.5610971 2.3
4.1645889 -5.5610971 2.3499999
4.1645889 -5.5610971 2.4000001
4.1645889 -5.5610971 2.45
4.1645889 -5.5610971 2.5
4.1645889 -5.5610971 2.55
4.1645889 -5.5610971 2.5999999
4.1645889 -5.6109724 0.050000001
4.1645889 -5.6109724 0.1
4.1645889 -5.6109724 0.15000001
4.1645889 -5.6109724 0.2
4.1645889 -5.6109724 0.25
4.1645889 -5.6109724 0.30000001
4.1645889 -5.6109724 0.35000002
4.1645889 -5.6109724 0.40000001
4.1645889 -5.6109724 0.45000002
4.1645889 -5.6109724 0.5
4.1645889 -5.6109724 0.55000001
4.1645889 -5.6109724 0.60000002
4.1645889 -5.6109724 0.65000004
4.1645889 -5.6109724 0.70000005
4.1645889 -5.6109724 0.75
4.1645889 -5.6109724 0.80000001
4.1645889 -5.6109724 0.85000002
4.1645889 -5.6109724 0.90000004
4.1645889 -5.6109724 0.95000005
4.1645889 -5.6109724 1
4.1645889 -5.6109724 1.05
4.1645889 -5.6109724 1.1
4.1645889 -5.6109724 1.15
4.1645889 -5.6109724 1.1999999
4.1645889 -5.6109724 1.25
4.1645889 -5.6109724 1.3
4.1645889 -5.6109724 1.35
4.1645889 -5.6109724 1.4
4.1645889 -5.6109724 1.4499999
4.1645889 -5.6109724 1.5
4.1645889 -5.6109724 1.55
4.1645889 -5.6109724 1.6
4.1645889 -5.6109724 1.65
4.1645889 -5.6109724 1.6999999
4.1645889 -5.6109724 1.75
4.1645889 -5.6109724 1.8
4.1645889 -5.6109724 1.85
4.1645889 -5.6109724 1.9
4.1645889 -5.6109724 1.9499999
4.1645889 -5.6109724 2
4.1645889 -5.6109724 2.05
4.1645889 -5.6109724 2.0999999
4.1645889 -5.6109724 2.1500001
4.1645889 -5.6109724 2.2
4.1645889 -5.6109724 2.25
4.1645889 -5.6109724 2.3
4.1645889 -5.6109724 2.3499999
4.1645889 -5.6109724 2.4000001
4.1645889 -5.6109724 2.45
4.1645889 -5.6109724 2.5
4.1645889 -5.6109724 2.55
4.1645889 -5.6109724 2.5999999
4.1645889 -5.6608477 0.050000001
4.1645889 -5.6608477 0.1
4.1645889 -5.6608477 0.15000001
4.1645889 -5.6608477 0.2
4.1645889 -5.6608477 0.25
4.1645889 -5.6608477 0.30000001
4.1645889 -5.6608477 0.35000002
4.1645889 -5.6608477 0.40000001
4.1645889 -5.6608477 0.45000002
4.1645889 -5.6608477 0.5
4.1645889 -5.6608477 0.55000001
4.1645889 -5.6608477 0.60000002
4.1645889 -5.6608477 0.65000004
4.1645889 -5.6608477 0.70000005
4.1645889 -5.6608477 0.75
4.1645889 -5.6608477 0.80000001
4.1645889 -5.6608477 0.85000002
4.1645889 -5.6608477 0.90000004
4.1645889 -5.6608477 0.95000005
4.1645889 -5.6608477 1
4.1645889 -5.6608477 1.05
4.1645889 -5.6608477 1.1
4.1645889 -5.6608477 1.15
4.1645889 -5.6608477 1.1999999
4.1645889 -5.6608477 1.25
4.1645889 -5.6608477 1.3
4.1645889 -5.6608477 1.35
4.1645889 -5.6608477 1.4
4.1645889 -5.6608477 1.4499999
4.1645889 -5.6608477 1.5
4.1645889 -5.6608477 1.55
4.1645889 -5.6608477 1.6
4.1645889 -5.6608477 1.65
4.1645889 -5.6608477 1.6999999
4.1645889 -5.6608477 1.75
4.1645889 -5.6608477 1.8
4.1645889 -5.6608477 1.85
4.1645889 -5.6608477 1.9
4.1645889 -5.6608477 1.9499999
4.1645889 -5.6608477 2
4.1645889 -5.6608477 2.05
4.1645889 -5.6608477 2.0999999
4.1645889 -5.6608477 2.1500001
4.1645889 -5.6608477 2.2
4.1645889 -5.6608477 2.25
4.1645889 -5.6608477 2.3
4.1645889 -5.6608477 2.3499999
4.1645889 -5.6608477 2.4000001
4.1645889 -5.6608477 2.45
4.1645889 -5.6608477 2.5
4.1645889 -5.6608477 2.55
4.1645889 -5.6608477 2.5999999
4.1645889 -5.7107229 0.050000001
4.1645889 -5.7107229 0.1
4.1645889 -5.7107229 0.15000001
4.1645889 -5.7107229 0.2
4.1645889 -5.7107229 0.25
4.1645889 -5.7107229 0.30000001
4.1645889 -5.7107229 0.35000002
4.1645889 -5.7107229 0.40000001
4.1645889 -5.7107229 0.45000002
4.1645889 -5.7107229 0.5
4.1645889 -5.7107229 0.55000001
4.1645889 -5.7107229 0.60000002
4.1645889 -5.7107229 0.65000004
4.1645889 -5.7107229 0.70000005
4.1645889 -5.7107229 0.75
4.1645889 -5.7107229 0.80000001
4.1645889 -5.7107229 0.85000002
4.1645889 -5.7107229 0.90000004
4.1645889 -5.7107229 0.95000005
4.1645889 -5.7107229 1
4.1645889 -5.7107229 1.05
4.1645889 -5.7107229 1.1
4.1645889 -5.7107229 1.15
4.1645889 -5.7107229 1.1999999
4.1645889 -5.7107229 1.25
4.1645889 -5.7107229 1.3
4.1645889 -5.7107229 1.35
4.1645889 -5.7107229 1.4
4.1645889 -5.7107229 1.4499999
4.1645889 -5.7107229 1.5
4.1645889 -5.7107229 1.55
4.1645889 -5.7107229 1.6
4.1645889 -5.7107229 1.65
4.1645889 -5.7107229 1.6999999
4.1645889 -5.7107229 1.75
4.1645889 -5.7107229 1.8
4.1645889 -5.7107229 1.85
4.1645889 -5.7107229 1.9
4.1645889 -5.7107229 1.9499999
4.1645889 -5.7107229 2
4.1645889 -5.7107229 2.05
4.1645889 -5.7107229 2.0999999
4.1645889 -5.7107229 2.1500001
4.1645889 -5.7107229 2.2
4.1645889 -5.7107229 2.25
4.1645889 -5.7107229 2.3
4.1645889 -5.7107229 2.3499999
4.1645889 -5.7107229 2.4000001
4.1645889 -5.7107229 2.45
4.1645889 -5.7107229 2.5
4.1645889 -5.7107229 2.55
4.1645889 -5.7107229 2.5999999
4.1645889 -5.7605982 0.050000001
4.1645889 -5.7605982 0.1
4.1645889 -5.7605982 0.15000001
4.1645889 -5.7605982 0.2
4.1645889 -5.7605982 0.25
4.1645889 -5.7605982 0.30000001
4.1645889 -5.7605982 0.35000002
4.1645889 -5.7605982 0.40000001
4.1645889 -5.7605982 0.45000002
4.1645889 -5.7605982 0.5
4.1645889 -5.7605982 0.55000001
4.1645889 -5.7605982 0.60000002
4.1645889 -5.7605982 0.65000004
4.1645889 -5.7605982 0.70000005
4.1645889 -5.7605982 0.75
4.1645889 -5.7605982 0.80000001
4.1645889 -5.7605982 0.85000002
4.1645889 -5.7605982 0.90000004
4.1645889 -5.7605982 0.95000005
4.1645889 -5.7605982 1
4.1645889 -5.7605982 1.05
4.1645889 -5.7605982 1.1
4.1645889 -5.7605982 1.15
4.1645889 -5.7605982 1.1999999
4.1645889 -5.7605982 1.25
4.1645889 -5.7605982 1.3
4.1645889 -5.7605982 1.35
4.1645889 -5.7605982 1.4
4.1645889 -5.7605982 1.4499999
4.1645889 -5.7605982 1.5
4.1645889 -5.7605982 1.55
4.1645889 -5.7605982 1.6
4.1645889 -5.7605982 1.65
4.1645889 -5.7605982 1.6999999
4.1645889 -5.7605982 1.75
4.1645889 -5.7605982 1.8
4.1645889 -5.7605982 1.85
4.1645889 -5.7605982 1.9
4.1645889 -5.7605982 1.9499999
4.1645889 -5.7605982 2
4.1645889 -5.7605982 2.05
4.1645889 -5.7605982 2.0999999
4.1645889 -5.7605982 2.1500001
4.1645889 -5.7605982 2.2
4.1645889 -5.7605982 2.25
4.1645889 -5.7605982 2.3
4.1645889 -5.7605982 2.3499999
4.1645889 -5.7605982 2.4000001
4.1645889 -5.7605982 2.45
4.1645889 -5.7605982 2.5
4.1645889 -5.7605982 2.55
4.1645889 -5.7605982 2.5999999
4.1645889 -5.8104734 0.050000001
4.1645889 -5.8104734 0.1
4.1645889 -5.8104734 0.15000001
4.1645889 -5.8104734 0.2
4.1645889 -5.8104734 0.25
4.1645889 -5.8104734 0.30000001
4.1645889 -5.8104734 0.35000002
4.1645889 -5.8104734 0.40000001
4.1645889 -5.8104734 0.45000002
4.1645889 -5.8104734 0.5
4.1645889 -5.8104734 0.55000001
4.1645889 -5.8104734 0.60000002
4.1645889 -5.8104734 0.65000004
4.1645889 -5.8104734 0.70000005
4.1645889 -5.8104734 0.75
4.1645889 -5.8104734 0.80000001
4.1645889 -5.8104734 0.85000002
4.1645889 -5.8104734 0.90000004
4.1645889 -5.8104734 0.95000005
4.1645889 -5.8104734 1
4.1645889 -5.8104734 1.05
4.1645889 -5.8104734 1.1
4.1645889 -5.8104734 1.15
4.1645889 -5.8104734 1.1999999
4.1645889 -5.8104734 1.25
4.1645889 -5.8104734 1.3
4.1645889 -5.8104734 1.35
4.1645889 -5.8104734 1.4
4.1645889 -5.8104734 1.4499999
4.1645889 -5.8104734 1.5
4.1645889 -5.8104734 1.55
4.1645889 -5.8104734 1.6
4.1645889 -5.8104734 1.65
4.1645889 -5.8104734 1.6999999
4.1645889 -5.8104734 1.75
4.1645889 -5.8104734 1.8
4.1645889 -5.8104734 1.85
4.1645889 -5.8104734 1.9
4.1645889 -5.8104734 1.9499999
4.1645889 -5.8104734 2
4.1645889 -5.8104734 2.05
4.1645889 -5.8104734 2.0999999
4.1645889 -5.8104734 2.1500001
4.1645889 -5.8104734 2.2
4.1645889 -5.8104734 2.25
4.1645889 -5.8104734 2.3
4.1645889 -5.8104734 2.3499999
4.1645889 -5.8104734 2.4000001
4.1645889 -5.8104734 2.45
4.1645889 -5.8104734 2.5
4.1645889 -5.8104734 2.55
4.1645889 -5.8104734 2.5999999
4.1645889 -5.8603487 0.050000001
4.1645889 -5.8603487 0.1
4.1645889 -5.8603487 0.15000001
4.1645889 -5.8603487 0.2
4.1645889 -5.8603487 0.25
4.1645889 -5.8603487 0.30000001
4.1645889 -5.8603487 0.35000002
4.1645889 -5.8603487 0.40000001
4.1645889 -5.8603487 0.45000002
4.1645889 -5.8603487 0.5
4.1645889 -5.8603487 0.55000001
4.1645889 -5.8603487 0.60000002
4.1645889 -5.8603487 0.65000004
4.1645889 -5.8603487 0.70000005
4.1645889 -5.8603487 0.75
4.1645889 -5.8603487 0.80000001
4.1645889 -5.8603487 0.85000002
4.1645889 -5.8603487 0.90000004
4.1645889 -5.8603487 0.95000005
4.1645889 -5.8603487 1
4.1645889 -5.8603487 1.05
4.1645889 -5.8603487 1.1
4.1645889 -5.8603487 1.15
4.1645889 -5.8603487 1.1999999
4.1645889 -5.8603487 1.25
4.1645889 -5.8603487 1.3
4.1645889 -5.8603487 1.35
4.1645889 -5.8603487 1.4
4.1645889 -5.8603487 1.4499999
4.1645889 -5.8603487 1.5
4.1645889 -5.8603487 1.55
4.1645889 -5.8603487 1.6
4.1645889 -5.8603487 1.65
4.1645889 -5.8603487 1.6999999
4.1645889 -5.8603487 1.75
4.1645889 -5.8603487 1.8
4.1645889 -5.8603487 1.85
4.1645889 -5.8603487 1.9
4.1645889 -5.8603487 1.9499999
4.1645889 -5.8603487 2
4.1645889 -5.8603487 2.05
4.1645889 -5.8603487 2.0999999
4.1645889 -5.8603487 2.1500001
4.1645889 -5.8603487 2.2
4.1645889 -5.8603487 2.25
4.1645889 -5.8603487 2.3
4.1645889 -5.8603487 2.3499999
4.1645889 -5.8603487 2.4000001
4.1645889 -5.8603487 2.45
4.1645889 -5.8603487 2.5
4.1645889 -5.8603487 2.55
4.1645889 -5.8603487 2.5999999
4.1645889 -5.910224 0.050000001
4.1645889 -5.910224 0.1
4.1645889 -5.910224 0.15000001
4.1645889 -5.910224 0.2
4.1645889 -5.910224 0.25
4.1645889 -5.910224 0.30000001
4.1645889 -5.910224 0.35000002
4.1645889 -5.910224 0.40000001
4.1645889 -5.910224 0.45000002
4.1645889 -5.910224 0.5
4.1645889 -5.910224 0.55000001
4.1645889 -5.910224 0.60000002
4.1645889 -5.910224 0.65000004
4.1645889 -5.910224 0.70000005
4.1645889 -5.910224 0.75
4.1645889 -5.910224 0.80000001
4.1645889 -5.910224 0.85000002
4.1645889 -5.910224 0.90000004
4.1645889 -5.910224 0.95000005
4.1645889 -5.910224 1
4.1645889 -5.910224 1.05
4.1645889 -5.910224 1.1
4.1645889 -5.910224 1.15
4.1645889 -5.910224 1.1999999
4.1645889 -5.910224 1.25
4.1645889 -5.910224 1.3
4.1645889 -5.910224 1.35
4.1645889 -5.910224 1.4
4.1645889 -5.910224 1.4499999
4.1645889 -5.910224 1.5
4.1645889 -5.910224 1.55
4.1645889 -5.910224 1.6
4.1645889 -5.910224 1.65
4.1645889 -5.910224 1.6999999
4.1645889 -5.910224 1.75
4.1645889 -5.910224 1.8
4.1645889 -5.910224 1.85
4.1645889 -5.910224 1.9
4.1645889 -5.910224 1.9499999
4.1645889 -5.910224 2
4.1645889 -5.910224 2.05
4.1645889 -5.910224 2.0999999
4.1645889 -5.910224 2.1500001
4.1645889 -5.910224 2.2
4.1645889 -5.910224 2.25
4.1645889 -5.910224 2.3
4.1645889 -5.910224 2.3499999
4.1645889 -5.910224 2.4000001
4.1645889 -5.910224 2.45
4.1645889 -5.910224 2.5
4.1645889 -5.910224 2.55
4.1645889 -5.910224 2.5999999
4.1645889 -5.9601002 0.050000001
4.1645889 -5.9601002 0.1
4.1645889 -5.9601002 0.15000001
4.1645889 -5.9601002 0.2
4.1645889 -5.9601002 0.25
4.1645889 -5.9601002 0.30000001
4.1645889 -5.9601002 0.35000002
4.1645889 -5.9601002 0.40000001
4.1645889 -5.9601002 0.45000002
4.1645889 -5.9601002 0.5
4.1645889 -5.9601002 0.55000001
4.1645889 -5.9601002 0.60000002
4.1645889 -5.9601002 0.65000004
4.1645889 -5.9601002 0.70000005
4.1645889 -5.9601002 0.75
4.1645889 -5.9601002 0.80000001
4.1645889 -5.9601002 0.85000002
4.1645889 -5.9601002 0.90000004
4.1645889 -5.9601002 0.95000005
4.1645889 -5.9601002 1
4.1645889 -5.9601002 1.05
4.1645889 -5.9601002 1.1
4.1645889 -5.9601002 1.15
4.1645889 -5.9601002 1.1999999
4.1645889 -5.9601002 1.25
4.1645889 -5.9601002 1.3
4.1645889 -5.9601002 1.35
4.1645889 -5.9601002 1.4
4.1645889 -5.9601002 1.4499999
4.1645889 -5.9601002 1.5
4.1645889 -5.9601002 1.55
4.1645889 -5.9601002 1.6
4.1645889 -5.9601002 1.65
4.1645889 -5.9601002 1.6999999
4.1645889 -5.9601002 1.75
4.1645889 -5.9601002 1.8
4.1645889 -5.9601002 1.85
4.1645889 -5.9601002 1.9
4.1645889 -5.9601002 1.9499999
4.1645889 -5.9601002 2
4.1645889 -5.9601002 2.05
4.1645889 -5.9601002 2.0999999
4.1645889 -5.9601002 2.1500001
4.1645889 -5.9601002 2.2
4.1645889 -5.9601002 2.25
4.1645889 -5.9601002 2.3
4.1645889 -5.9601002 2.3499999
4.1645889 -5.9601002 2.4000001
4.1645889 -5.9601002 2.45
4.1645889 -5.9601002 2.5
4.1645889 -5.9601002 2.55
4.1645889 -5.9601002 2.5999999
4.1645889 -6.0099754 0.050000001
4.1645889 -6.0099754 0.1
4.1645889 -6.0099754 0.15000001
4.1645889 -6.0099754 0.2
4.1645889 -6.0099754 0.25
4.1645889 -6.0099754 0.30000001
4.1645889 -6.0099754 0.35000002
4.1645889 -6.0099754 0.40000001
4.1645889 -6.0099754 0.45000002
4.1645889 -6.0099754 0.5
4.1645889 -6.0099754 0.55000001
4.1645889 -6.0099754 0.60000002
4.1645889 -6.0099754 0.65000004
4.1645889 -6.0099754 0.70000005
4.1645889 -6.0099754 0.75
4.1645889 -6.0099754 0.80000001
4.1645889 -6.0099754 0.85000002
4.1645889 -6.0099754 0.90000004
4.1645889 -6.0099754 0.95000005
4.1645889 -6.0099754 1
4.1645889 -6.0099754 1.05
4.1645889 -6.0099754 1.1
4.1645889 -6.0099754 1.15
4.1645889 -6.0099754 1.1999999
4.1645889 -6.0099754 1.25
4.1645889 -6.0099754 1.3
4.1645889 -6.0099754 1.35
4.1645889 -6.0099754 1.4
4.1645889 -6.0099754 1.4499999
4.1645889 -6.0099754 1.5
4.1645889 -6.0099754 1.55
4.1645889 -6.0099754 1.6
4.1645889 -6.0099754 1.65
4.1645889 -6.0099754 1.6999999
4.1645889 -6.0099754 1.75
4.1645889 -6.0099754 1.8
4.1645889 -6.0099754 1.85
4.1645889 -6.0099754 1.9
4.1645889 -6.0099754 1.9499999
4.1645889 -6.0099754 2
4.1645889 -6.0099754 2.05
4.1645889 -6.0099754 2.0999999
4.1645889 -6.0099754 2.1500001
4.1645889 -6.0099754 2.2
4.1645889 -6.0099754 2.25
4.1645889 -6.0099754 2.3
4.1645889 -6.0099754 2.3499999
4.1645889 -6.0099754 2.4000001
4.1645889 -6.0099754 2.45
4.1645889 -6.0099754 2.5
4.1645889 -6.0099754 2.55
4.1645889 -6.0099754 2.5999999
4.1645889 -6.0598507 0.050000001
4.1645889 -6.0598507 0.1
4.1645889 -6.0598507 0.15000001
4.1645889 -6.0598507 0.2
4.1645889 -6.0598507 0.25
4.1645889 -6.0598507 0.30000001
4.1645889 -6.0598507 0.35000002
4.1645889 -6.0598507 0.40000001
4.1645889 -6.0598507 0.45000002
4.1645889 -6.0598507 0.5
4.1645889 -6.0598507 0.55000001
4.1645889 -6.0598507 0.60000002
4.1645889 -6.0598507 0.65000004
4.1645889 -6.0598507 0.70000005
4.1645889 -6.0598507 0.75
4.1645889 -6.0598507 0.80000001
4.1645889 -6.0598507 0.85000002
4.1645889 -6.0598507 0.90000004
4.1645889 -6.0598507 0.95000005
4.1645889 -6.0598507 1
4.1645889 -6.0598507 1.05
4.1645889 -6.0598507 1.1
4.1645889 -6.0598507 1.15
4.1645889 -6.0598507 1.1999999
4.1645889 -6.0598507 1.25
4.1645889 -6.0598507 1.3
4.1645889 -6.0598507 1.35
4.1645889 -6.0598507 1.4
4.1645889 -6.0598507 1.4499999
4.1645889 -6.0598507 1.5
4.1645889 -6.0598507 1.55
4.1645889 -6.0598507 1.6
4.1645889 -6.0598507 1.65
4.1645889 -6.0598507 1.6999999
4.1645889 -6.0598507 1.75
4.1645889 -6.0598507 1.8
4.1645889 -6.0598507 1.85
4.1645889 -6.0598507 1.9
4.1645889 -6.0598507 1.9499999
4.1645889 -6.0598507 2
4.1645889 -6.0598507 2.05
4.1645889 -6.0598507 2.0999999
4.1645889 -6.0598507 2.1500001
4.1645889 -6.0598507 2.2
4.1645889 -6.0598507 2.25
4.1645889 -6.0598507 2.3
4.1645889 -6.0598507 2.3499999
4.1645889 -6.0598507 2.4000001
4.1645889 -6.0598507 2.45
4.1645889 -6.0598507 2.5
4.1645889 -6.0598507 2.55
4.1645889 -6.0598507 2.5999999
4.1645889 -6.109726 0.050000001
4.1645889 -6.109726 0.1
4.1645889 -6.109726 0.15000001
4.1645889 -6.109726 0.2
4.1645889 -6.109726 0.25
4.1645889 -6.109726 0.30000001
4.1645889 -6.109726 0.35000002
4.1645889 -6.109726 0.40000001
4.1645889 -6.109726 0.45000002
4.1645889 -6.109726 0.5
4.1645889 -6.109726 0.55000001
4.1645889 -6.109726 0.60000002
4.1645889 -6.109726 0.65000004
4.1645889 -6.109726 0.70000005
4.1645889 -6.109726 0.75
4.1645889 -6.109726 0.80000001
4.1645889 -6.109726 0.85000002
4.1645889 -6.109726 0.90000004
4.1645889 -6.109726 0.95000005
4.1645889 -6.109726 1
4.1645889 -6.109726 1.05
4.1645889 -6.109726 1.1
4.1645889 -6.109726 1.15
4.1645889 -6.109726 1.1999999
4.1645889 -6.109726 1.25
4.1645889 -6.109726 1.3
4.1645889 -6.109726 1.35
4.1645889 -6.109726 1.4
4.1645889 -6.109726 1.4499999
4.1645889 -6.109726 1.5
4.1645889 -6.109726 1.55
4.1645889 -6.109726 1.6
4.1645889 -6.109726 1.65
4.1645889 -6.109726 1.6999999
4.1645889 -6.109726 1.75
4.1645889 -6.109726 1.8
4.1645889 -6.109726 1.85
4.1645889 -6.109726 1.9
4.1645889 -6.109726 1.9499999
4.1645889 -6.109726 2
4.1645889 -6.109726 2.05
4.1645889 -6.109726 2.0999999
4.1645889 -6.109726 2.1500001
4.1645889 -6.109726 2.2
4.1645889 -6.109726 2.25
4.1645889 -6.109726 2.3
4.1645889 -6.109726 2.3499999
4.1645889 -6.109726 2.4000001
4.1645889 -6.109726 2.45
4.1645889 -6.109726 2.5
4.1645889 -6.109726 2.55
4.1645889 -6.109726 2.5999999
4.1645889 -6.1596012 0.050000001
4.1645889 -6.1596012 0.1
4.1645889 -6.1596012 0.15000001
4.1645889 -6.1596012 0.2
4.1645889 -6.1596012 0.25
4.1645889 -6.1596012 0.30000001
4.1645889 -6.1596012 0.35000002
4.1645889 -6.1596012 0.40000001
4.1645889 -6.1596012 0.45000002
4.1645889 -6.1596012 0.5
4.1645889 -6.1596012 0.55000001
4.1645889 -6.1596012 0.60000002
4.1645889 -6.1596012 0.65000004
4.1645889 -6.1596012 0.70000005
4.1645889 -6.1596012 0.75
4.1645889 -6.1596012 0.80000001
4.1645889 -6.1596012 0.85000002
4.1645889 -6.1596012 0.90000004
4.1645889 -6.1596012 0.95000005
4.1645889 -6.1596012 1
4.1645889 -6.1596012 1.05
4.1645889 -6.1596012 1.1
4.1645889 -6.1596012 1.15
4.1645889 -6.1596012 1.1999999
4.1645889 -6.1596012 1.25
4.1645889 -6.1596012 1.3
4.1645889 -6.1596012 1.35
4.1645889 -6.1596012 1.4
4.1645889 -6.1596012 1.4499999
4.1645889 -6.1596012 1.5
4.1645889 -6.1596012 1.55
4.1645889 -6.1596012 1.6
4.1645889 -6.1596012 1.65
4.1645889 -6.1596012 1.6999999
4.1645889 -6.1596012 1.75
4.1645889 -6.1596012 1.8
4.1645889 -6.1596012 1.85
4.1645889 -6.1596012 1.9
4.1645889 -6.1596012 1.9499999
4.1645889 -6.1596012 2
4.1645889 -6.1596012 2.05
4.1645889 -6.1596012 2.0999999
4.1645889 -6.1596012 2.1500001
4.1645889 -6.1596012 2.2
4.1645889 -6.1596012 2.25
4.1645889 -6.1596012 2.3
4.1645889 -6.1596012 2.3499999
4.1645889 -6.1596012 2.4000001
4.1645889 -6.1596012 2.45
4.1645889 -6.1596012 2.5
4.1645889 -6.1596012 2.55
4.1645889 -6.1596012 2.5999999
4.1645889 -6.2094765 0.050000001
4.1645889 -6.2094765 0.1
4.1645889 -6.2094765 0.15000001
4.1645889 -6.2094765 0.2
4.1645889 -6.2094765 0.25
4.1645889 -6.2094765 0.30000001
4.1645889 -6.2094765 0.35000002
4.1645889 -6.2094765 0.40000001
4.1645889 -6.2094765 0.45000002
4.1645889 -6.2094765 0.5
4.1645889 -6.2094765 0.55000001
4.1645889 -6.2094765 0.60000002
4.1645889 -6.2094765 0.65000004
4.1645889 -6.2094765 0.70000005
4.1645889 -6.2094765 0.75
4.1645889 -6.2094765 0.80000001
4.1645889 -6.2094765 0.85000002
4.1645889 -6.2094765 0.90000004
4.1645889 -6.2094765 0.95000005
4.1645889 -6.2094765 1
4.1645889 -6.2094765 1.05
4.1645889 -6.2094765 1.1
4.1645889 -6.2094765 1.15
4.1645889 -6.2094765 1.1999999
4.1645889 -6.2094765 1.25
4.1645889 -6.2094765 1.3
4.1645889 -6.2094765 1.35
4.1645889 -6.2094765 1.4
4.1645889 -6.2094765 1.4499999
4.1645889 -6.2094765 1.5
4.1645889 -6.2094765 1.55
4.1645889 -6.2094765 1.6
4.1645889 -6.2094765 1.65
4.1645889 -6.2094765 1.6999999
4.1645889 -6.2094765 1.75
4.1645889 -6.2094765 1.8
4.1645889 -6.2094765 1.85
4.1645889 -6.2094765 1.9
4.1645889 -6.2094765 1.9499999
4.1645889 -6.2094765 2
4.1645889 -6.2094765 2.05
4.1645889 -6.2094765 2.0999999
4.1645889 -6.2094765 2.1500001
4.1645889 -6.2094765 2.2
4.1645889 -6.2094765 2.25
4.1645889 -6.2094765 2.3
4.1645889 -6.2094765 2.3499999
4.1645889 -6.2094765 2.4000001
4.1645889 -6.2094765 2.45
4.1645889 -6.2094765 2.5
4.1645889 -6.2094765 2.55
4.1645889 -6.2094765 2.5999999
4.1645889 -6.2593517 0.050000001
4.1645889 -6.2593517 0.1
4.1645889 -6.2593517 0.15000001
4.1645889 -6.2593517 0.2
4.1645889 -6.2593517 0.25
4.1645889 -6.2593517 0.30000001
4.1645889 -6.2593517 0.35000002
4.1645889 -6.2593517 0.40000001
4.1645889 -6.2593517 0.45000002
4.1645889 -6.2593517 0.5
4.1645889 -6.2593517 0.55000001
4.1645889 -6.2593517 0.60000002
4.1645889 -6.2593517 0.65000004
4.1645889 -6.2593517 0.70000005
4.1645889 -6.2593517 0.75
4.1645889 -6.2593517 0.80000001
4.1645889 -6.2593517 0.85000002
4.1645889 -6.2593517 0.90000004
4.1645889 -6.2593517 0.95000005
4.1645889 -6.2593517 1
4.1645889 -6.2593517 1.05
4.1645889 -6.2593517 1.1
4.1645889 -6.2593517 1.15
4.1645889 -6.2593517 1.1999999
4.1645889 -6.2593517 1.25
4.1645889 -6.2593517 1.3
4.1645889 -6.2593517 1.35
4.1645889 -6.2593517 1.4
4.1645889 -6.2593517 1.4499999
4.1645889 -6.2593517 1.5
4.1645889 -6.2593517 1.55
4.1645889 -6.2593517 1.6
4.1645889 -6.2593517 1.65
4.1645889 -6.2593517 1.6999999
4.1645889 -6.2593517 1.75
4.1645889 -6.2593517 1.8
4.1645889 -6.2593517 1.85
4.1645889 -6.2593517 1.9
4.1645889 -6.2593517 1.9499999
4.1645889 -6.2593517 2
4.1645889 -6.2593517 2.05
4.1645889 -6.2593517 2.0999999
4.1645889 -6.2593517 2.1500001
4.1645889 -6.2593517 2.2
4.1645889 -6.2593517 2.25
4.1645889 -6.2593517 2.3
4.1645889 -6.2593517 2.3499999
4.1645889 -6.2593517 2.4000001
4.1645889 -6.2593517 2.45
4.1645889 -6.2593517 2.5
4.1645889 -6.2593517 2.55
4.1645889 -6.2593517 2.5999999
4.1645889 -6.309227 0.050000001
4.1645889 -6.309227 0.1
4.1645889 -6.309227 0.15000001
4.1645889 -6.309227 0.2
4.1645889 -6.309227 0.25
4.1645889 -6.309227 0.30000001
4.1645889 -6.309227 0.35000002
4.1645889 -6.309227 0.40000001
4.1645889 -6.309227 0.45000002
4.1645889 -6.309227 0.5
4.1645889 -6.309227 0.55000001
4.1645889 -6.309227 0.60000002
4.1645889 -6.309227 0.65000004
4.1645889 -6.309227 0.70000005
4.1645889 -6.309227 0.75
4.1645889 -6.309227 0.80000001
4.1645889 -6.309227 0.85000002
4.1645889 -6.309227 0.90000004
4.1645889 -6.309227 0.95000005
4.1645889 -6.309227 1
4.1645889 -6.309227 1.05
4.1645889 -6.309227 1.1
4.1645889 -6.309227 1.15
4.1645889 -6.309227 1.1999999
4.1645889 -6.309227 1.25
4.1645889 -6.309227 1.3
4.1645889 -6.309227 1.35
4.1645889 -6.309227 1.4
4.1645889 -6.309227 1.4499999
4.1645889 -6.309227 1.5
4.1645889 -6.309227 1.55
4.1645889 -6.309227 1.6
4.1645889 -6.309227 1.65
4.1645889 -6.309227 1.6999999
4.1645889 -6.309227 1.75
4.1645889 -6.309227 1.8
4.1645889 -6.309227 1.85
4.1645889 -6.309227 1.9
4.1645889 -6.309227 1.9499999
4.1645889 -6.309227 2
4.1645889 -6.309227 2.05
4.1645889 -6.309227 2.0999999
4.1645889 -6.309227 2.1500001
4.1645889 -6.309227 2.2
4.1645889 -6.309227 2.25
4.1645889 -6.309227 2.3
4.1645889 -6.309227 2.3499999
4.1645889 -6.309227 2.4000001
4.1645889 -6.309227 2.45
4.1645889 -6.309227 2.5
4.1645889 -6.309227 2.55
4.1645889 -6.309227 2.5999999
4.1645889 -6.3591022 0.050000001
4.1645889 -6.3591022 0.1
4.1645889 -6.3591022 0.15000001
4.1645889 -6.3591022 0.2
4.1645889 -6.3591022 0.25
4.1645889 -6.3591022 0.30000001
4.1645889 -6.3591022 0.35000002
4.1645889 -6.3591022 0.40000001
4.1645889 -6.3591022 0.45000002
4.1645889 -6.3591022 0.5
4.1645889 -6.3591022 0.55000001
4.1645889 -6.3591022 0.60000002
4.1645889 -6.3591022 0.65000004
4.1645889 -6.3591022 0.70000005
4.1645889 -6.3591022 0.75
4.1645889 -6.3591022 0.80000001
4.1645889 -6.3591022 0.85000002
4.1645889 -6.3591022 0.90000004
4.1645889 -6.3591022 0.95000005
4.1645889 -6.3591022 1
4.1645889 -6.3591022 1.05
4.1645889 -6.3591022 1.1
4.1645889 -6.3591022 1.15
4.1645889 -6.3591022 1.1999999
4.1645889 -6.3591022 1.25
4.1645889 -6.3591022 1.3
4.1645889 -6.3591022 1.35
4.1645889 -6.3591022 1.4
4.1645889 -6.3591022 1.4499999
4.1645889 -6.3591022 1.5
4.1645889 -6.3591022 1.55
4.1645889 -6.3591022 1.6
4.1645889 -6.3591022 1.65
4.1645889 -6.3591022 1.6999999
4.1645889 -6.3591022 1.75
4.1645889 -6.3591022 1.8
4.1645889 -6.3591022 1.85
4.1645889 -6.3591022 1.9
4.1645889 -6.3591022 1.9499999
4.1645889 -6.3591022 2
4.1645889 -6.3591022 2.05
4.1645889 -6.3591022 2.0999999
4.1645889 -6.3591022 2.1500001
4.1645889 -6.3591022 2.2
4.1645889 -6.3591022 2.25
4.1645889 -6.3591022 2.3
4.1645889 -6.3591022 2.3499999
4.1645889 -6.3591022 2.4000001
4.1645889 -6.3591022 2.45
4.1645889 -6.3591022 2.5
4.1645889 -6.3591022 2.55
4.1645889 -6.3591022 2.5999999
4.1645889 -6.4089775 0.050000001
4.1645889 -6.4089775 0.1
4.1645889 -6.4089775 0.15000001
4.1645889 -6.4089775 0.2
4.1645889 -6.4089775 0.25
4.1645889 -6.4089775 0.30000001
4.1645889 -6.4089775 0.35000002
4.1645889 -6.4089775 0.40000001
4.1645889 -6.4089775 0.45000002
4.1645889 -6.4089775 0.5
4.1645889 -6.4089775 0.55000001
4.1645889 -6.4089775 0.60000002
4.1645889 -6.4089775 0.65000004
4.1645889 -6.4089775 0.70000005
4.1645889 -6.4089775 0.75
4.1645889 -6.4089775 0.80000001
4.1645889 -6.4089775 0.85000002
4.1645889 -6.4089775 0.90000004
4.1645889 -6.4089775 0.95000005
4.1645889 -6.4089775 1
4.1645889 -6.4089775 1.05
4.1645889 -6.4089775 1.1
4.1645889 -6.4089775 1.15
4.1645889 -6.4089775 1.1999999
4.1645889 -6.4089775 1.25
4.1645889 -6.4089775 1.3
4.1645889 -6.4089775 1.35
4.1645889 -6.4089775 1.4
4.1645889 -6.4089775 1.4499999
4.1645889 -6.4089775 1.5
4.1645889 -6.4089775 1.55
4.1645889 -6.4089775 1.6
4.1645889 -6.4089775 1.65
4.1645889 -6.4089775 1.6999999
4.1645889 -6.4089775 1.75
4.1645889 -6.4089775 1.8
4.1645889 -6.4089775 1.85
4.1645889 -6.4089775 1.9
4.1645889 -6.4089775 1.9499999
4.1645889 -6.4089775 2
4.1645889 -6.4089775 2.05
4.1645889 -6.4089775 2.0999999
4.1645889 -6.4089775 2.1500001
4.1645889 -6.4089775 2.2
4.1645889 -6.4089775 2.25
4.1645889 -6.4089775 2.3
4.1645889 -6.4089775 2.3499999
4.1645889 -6.4089775 2.4000001
4.1645889 -6.4089775 2.45
4.1645889 -6.4089775 2.5
4.1645889 -6.4089775 2.55
4.1645889 -6.4089775 2.5999999
4.1645889 -6.4588528 0.050000001
4.1645889 -6.4588528 0.1
4.1645889 -6.4588528 0.15000001
4.1645889 -6.4588528 0.2
4.1645889 -6.4588528 0.25
4.1645889 -6.4588528 0.30000001
4.1645889 -6.4588528 0.35000002
4.1645889 -6.4588528 0.40000001
4.1645889 -6.4588528 0.45000002
4.1645889 -6.4588528 0.5
4.1645889 -6.4588528 0.55000001
4.1645889 -6.4588528 0.60000002
4.1645889 -6.4588528 0.65000004
4.1645889 -6.4588528 0.70000005
4.1645889 -6.4588528 0.75
4.1645889 -6.4588528 0.80000001
4.1645889 -6.4588528 0.85000002
4.1645889 -6.4588528 0.90000004
4.1645889 -6.4588528 0.95000005
4.1645889 -6.4588528 1
4.1645889 -6.4588528 1.05
4.1645889 -6.4588528 1.1
4.1645889 -6.4588528 1.15
4.1645889 -6.4588528 1.1999999
4.1645889 -6.4588528 1.25
4.1645889 -6.4588528 1.3
4.1645889 -6.4588528 1.35
4.1645889 -6.4588528 1.4
4.1645889 -6.4588528 1.4499999
4.1645889 -6.4588528 1.5
4.1645889 -6.4588528 1.55
4.1645889 -6.4588528 1.6
4.1645889 -6.4588528 1.65
4.1645889 -6.4588528 1.6999999
4.1645889 -6.4588528 1.75
4.1645889 -6.4588528 1.8
4.1645889 -6.4588528 1.85
4.1645889 -6.4588528 1.9
4.1645889 -6.4588528 1.9499999
4.1645889 -6.4588528 2
4.1645889 -6.4588528 2.05
4.1645889 -6.4588528 2.0999999
4.1645889 -6.4588528 2.1500001
4.1645889 -6.4588528 2.2
4.1645889 -6.4588528 2.25
4.1645889 -6.4588528 2.3
4.1645889 -6.4588528 2.3499999
4.1645889 -6.4588528 2.4000001
4.1645889 -6.4588528 2.45
4.1645889 -6.4588528 2.5
4.1645889 -6.4588528 2.55
4.1645889 -6.4588528 2.5999999
4.1645889 -6.508728 0.050000001
4.1645889 -6.508728 0.1
4.1645889 -6.508728 0.15000001
4.1645889 -6.508728 0.2
4.1645889 -6.508728 0.25
4.1645889 -6.508728 0.30000001
4.1645889 -6.508728 0.35000002
4.1645889 -6.508728 0.40000001
4.1645889 -6.508728 0.45000002
4.1645889 -6.508728 0.5
4.1645889 -6.508728 0.55000001
4.1645889 -6.508728 0.60000002
4.1645889 -6.508728 0.65000004
4.1645889 -6.508728 0.70000005
4.1645889 -6.508728 0.75
4.1645889 -6.508728 0.80000001
4.1645889 -6.508728 0.85000002
4.1645889 -6.508728 0.90000004
4.1645889 -6.508728 0.95000005
4.1645889 -6.508728 1
4.1645889 -6.508728 1.05
4.1645889 -6.508728 1.1
4.1645889 -6.508728 1.15
4.1645889 -6.508728 1.1999999
4.1645889 -6.508728 1.25
4.1645889 -6.508728 1.3
4.1645889 -6.508728 1.35
4.1645889 -6.508728 1.4
4.1645889 -6.508728 1.4499999
4.1645889 -6.508728 1.5
4.1645889 -6.508728 1.55
4.1645889 -6.508728 1.6
4.1645889 -6.508728 1.65
4.1645889 -6.508728 1.6999999
4.1645889 -6.508728 1.75
4.1645889 -6.508728 1.8
4.1645889 -6.508728 1.85
4.1645889 -6.508728 1.9
4.1645889 -6.508728 1.9499999
4.1645889 -6.508728 2
4.1645889 -6.508728 2.05
4.1645889 -6.508728 2.0999999
4.1645889 -6.508728 2.1500001
4.1645889 -6.508728 2.2
4.1645889 -6.508728 2.25
4.1645889 -6.508728 2.3
4.1645889 -6.508728 2.3499999
4.1645889 -6.508728 2.4000001
4.1645889 -6.508728 2.45
4.1645889 -6.508728 2.5
4.1645889 -6.508728 2.55
4.1645889 -6.508728 2.5999999
4.1645889 -6.5586033 0.050000001
4.1645889 -6.5586033 0.1
4.1645889 -6.5586033 0.15000001
4.1645889 -6.5586033 0.2
4.1645889 -6.5586033 0.25
4.1645889 -6.5586033 0.30000001
4.1645889 -6.5586033 0.35000002
4.1645889 -6.5586033 0.40000001
4.1645889 -6.5586033 0.45000002
4.1645889 -6.5586033 0.5
4.1645889 -6.5586033 0.55000001
4.1645889 -6.5586033 0.60000002
4.1645889 -6.5586033 0.65000004
4.1645889 -6.5586033 0.70000005
4.1645889 -6.5586033 0.75
4.1645889 -6.5586033 0.80000001
4.1645889 -6.5586033 0.85000002
4.1645889 -6.5586033 0.90000004
4.1645889 -6.5586033 0.95000005
4.1645889 -6.5586033 1
4.1645889 -6.5586033 1.05
4.1645889 -6.5586033 1.1
4.1645889 -6.5586033 1.15
4.1645889 -6.5586033 1.1999999
4.1645889 -6.5586033 1.25
4.1645889 -6.5586033 1.3
4.1645889 -6.5586033 1.35
4.1645889 -6.5586033 1.4
4.1645889 -6.5586033 1.4499999
4.1645889 -6.5586033 1.5
4.1645889 -6.5586033 1.55
4.1645889 -6.5586033 1.6
4.1645889 -6.5586033 1.65
4.1645889 -6.5586033 1.6999999
4.1645889 -6.5586033 1.75
4.1645889 -6.5586033 1.8
4.1645889 -6.5586033 1.85
4.1645889 -6.5586033 1.9
4.1645889 -6.5586033 1.9499999
4.1645889 -6.5586033 2
4.1645889 -6.5586033 2.05
4.1645889 -6.5586033 2.0999999
4.1645889 -6.5586033 2.1500001
4.1645889 -6.5586033 2.2
4.1645889 -6.5586033 2.25
4.1645889 -6.5586033 2.3
4.1645889 -6.5586033 2.3499999
4.1645889 -6.5586033 2.4000001
4.1645889 -6.5586033 2.45
4.1645889 -6.5586033 2.5
4.1645889 -6.5586033 2.55
4.1645889 -6.5586033 2.5999999
4.1645889 -6.6084785 0.050000001
4.1645889 -6.6084785 0.1
4.1645889 -6.6084785 0.15000001
4.1645889 -6.6084785 0.2
4.1645889 -6.6084785 0.25
4.1645889 -6.6084785 0.30000001
4.1645889 -6.6084785 0.35000002
4.1645889 -6.6084785 0.40000001
4.1645889 -6.6084785 0.45000002
4.1645889 -6.6084785 0.5
4.1645889 -6.6084785 0.55000001
4.1645889 -6.6084785 0.60000002
4.1645889 -6.6084785 0.65000004
4.1645889 -6.6084785 0.70000005
4.1645889 -6.6084785 0.75
4.1645889 -6.6084785 0.80000001
4.1645889 -6.6084785 0.85000002
4.1645889 -6.6084785 0.90000004
4.1645889 -6.6084785 0.95000005
4.1645889 -6.6084785 1
4.1645889 -6.6084785 1.05
4.1645889 -6.6084785 1.1
4.1645889 -6.6084785 1.15
4.1645889 -6.6084785 1.1999999
4.1645889 -6.6084785 1.25
4.1645889 -6.6084785 1.3
4.1645889 -6.6084785 1.35
4.1645889 -6.6084785 1.4
4.1645889 -6.6084785 1.4499999
4.1645889 -6.6084785 1.5
4.1645889 -6.6084785 1.55
4.1645889 -6.6084785 1.6
4.1645889 -6.6084785 1.65
4.1645889 -6.6084785 1.6999999
4.1645889 -6.6084785 1.75
4.1645889 -6.6084785 1.8
4.1645889 -6.6084785 1.85
4.1645889 -6.6084785 1.9
4.1645889 -6.6084785 1.9499999
4.1645889 -6.6084785 2
4.1645889 -6.6084785 2.05
4.1645889 -6.6084785 2.0999999
4.1645889 -6.6084785 2.1500001
4.1645889 -6.6084785 2.2
4.1645889 -6.6084785 2.25
4.1645889 -6.6084785 2.3
4.1645889 -6.6084785 2.3499999
4.1645889 -6.6084785 2.4000001
4.1645889 -6.6084785 2.45
4.1645889 -6.6084785 2.5
4.1645889 -6.6084785 2.55
4.1645889 -6.6084785 2.5999999
4.1645889 -6.6583538 0.050000001
4.1645889 -6.6583538 0.1
4.1645889 -6.6583538 0.15000001
4.1645889 -6.6583538 0.2
4.1645889 -6.6583538 0.25
4.1645889 -6.6583538 0.30000001
4.1645889 -6.6583538 0.35000002
4.1645889 -6.6583538 0.40000001
4.1645889 -6.6583538 0.45000002
4.1645889 -6.6583538 0.5
4.1645889 -6.6583538 0.55000001
4.1645889 -6.6583538 0.60000002
4.1645889 -6.6583538 0.65000004
4.1645889 -6.6583538 0.70000005
4.1645889 -6.6583538 0.75
4.1645889 -6.6583538 0.80000001
4.1645889 -6.6583538 0.85000002
4.1645889 -6.6583538 0.90000004
4.1645889 -6.6583538 0.95000005
4.1645889 -6.6583538 1
4.1645889 -6.6583538 1.05
4.1645889 -6.6583538 1.1
4.1645889 -6.6583538 1.15
4.1645889 -6.6583538 1.1999999
4.1645889 -6.6583538 1.25
4.1645889 -6.6583538 1.3
4.1645889 -6.6583538 1.35
4.1645889 -6.6583538 1.4
4.1645889 -6.6583538 1.4499999
4.1645889 -6.6583538 1.5
4.1645889 -6.6583538 1.55
4.1645889 -6.6583538 1.6
4.1645889 -6.6583538 1.65
4.1645889 -6.6583538 1.6999999
4.1645889 -6.6583538 1.75
4.1645889 -6.6583538 1.8
4.1645889 -6.6583538 1.85
4.1645889 -6.6583538 1.9
4.1645889 -6.6583538 1.9499999
4.1645889 -6.6583538 2
4.1645889 -6.6583538 2.05
4.1645889 -6.6583538 2.0999999
4.1645889 -6.6583538 2.1500001
4.1645889 -6.6583538 2.2
4.1645889 -6.6583538 2.25
4.1645889 -6.6583538 2.3
4.1645889 -6.6583538 2.3499999
4.1645889 -6.6583538 2.4000001
4.1645889 -6.6583538 2.45
4.1645889 -6.6583538 2.5
4.1645889 -6.6583538 2.55
4.1645889 -6.6583538 2.5999999
4.1645889 -6.7082291 0.050000001
4.1645889 -6.7082291 0.1
4.1645889 -6.7082291 0.15000001
4.1645889 -6.7082291 0.2
4.1645889 -6.7082291 0.25
4.1645889 -6.7082291 0.30000001
4.1645889 -6.7082291 0.35000002
4.1645889 -6.7082291 0.40000001
4.1645889 -6.7082291 0.45000002
4.1645889 -6.7082291 0.5
4.1645889 -6.7082291 0.55000001
4.1645889 -6.7082291 0.60000002
4.1645889 -6.7082291 0.65000004
4.1645889 -6.7082291 0.70000005
4.1645889 -6.7082291 0.75
4.1645889 -6.7082291 0.80000001
4.1645889 -6.7082291 0.85000002
4.1645889 -6.7082291 0.90000004
4.1645889 -6.7082291 0.95000005
4.1645889 -6.7082291 1
4.1645889 -6.7082291 1.05
4.1645889 -6.7082291 1.1
4.1645889 -6.7082291 1.15
4.1645889 -6.7082291 1.1999999
4.1645889 -6.7082291 1.25
4.1645889 -6.7082291 1.3
4.1645889 -6.7082291 1.35
4.1645889 -6.7082291 1.4
4.1645889 -6.7082291 1.4499999
4.1645889 -6.7082291 1.5
4.1645889 -6.7082291 1.55
4.1645889 -6.7082291 1.6
4.1645889 -6.7082291 1.65
4.1645889 -6.7082291 1.6999999
4.1645889 -6.7082291 1.75
4.1645889 -6.7082291 1.8
4.1645889 -6.7082291 1.85
4.1645889 -6.7082291 1.9
4.1645889 -6.7082291 1.9499999
4.1645889 -6.7082291 2
4.1645889 -6.7082291 2.05
4.1645889 -6.7082291 2.0999999
4.1645889 -6.7082291 2.1500001
4.1645889 -6.7082291 2.2
4.1645889 -6.7082291 2.25
4.1645889 -6.7082291 2.3
4.1645889 -6.7082291 2.3499999
4.1645889 -6.7082291 2.4000001
4.1645889 -6.7082291 2.45
4.1645889 -6.7082291 2.5
4.1645889 -6.7082291 2.55
4.1645889 -6.7082291 2.5999999
4.1645889 -6.7581043 0.050000001
4.1645889 -6.7581043 0.1
4.1645889 -6.7581043 0.15000001
4.1645889 -6.7581043 0.2
4.1645889 -6.7581043 0.25
4.1645889 -6.7581043 0.30000001
4.1645889 -6.7581043 0.35000002
4.1645889 -6.7581043 0.40000001
4.1645889 -6.7581043 0.45000002
4.1645889 -6.7581043 0.5
4.1645889 -6.7581043 0.55000001
4.1645889 -6.7581043 0.60000002
4.1645889 -6.7581043 0.65000004
4.1645889 -6.7581043 0.70000005
4.1645889 -6.7581043 0.75
4.1645889 -6.7581043 0.80000001
4.1645889 -6.7581043 0.85000002
4.1645889 -6.7581043 0.90000004
4.1645889 -6.7581043 0.95000005
4.1645889 -6.7581043 1
4.1645889 -6.7581043 1.05
4.1645889 -6.7581043 1.1
4.1645889 -6.7581043 1.15
4.1645889 -6.7581043 1.1999999
4.1645889 -6.7581043 1.25
4.1645889 -6.7581043 1.3
4.1645889 -6.7581043 1.35
4.1645889 -6.7581043 1.4
4.1645889 -6.7581043 1.4499999
4.1645889 -6.7581043 1.5
4.1645889 -6.7581043 1.55
4.1645889 -6.7581043 1.6
4.1645889 -6.7581043 1.65
4.1645889 -6.7581043 1.6999999
4.1645889 -6.7581043 1.75
4.1645889 -6.7581043 1.8
4.1645889 -6.7581043 1.85
4.1645889 -6.7581043 1.9
4.1645889 -6.7581043 1.9499999
4.1645889 -6.7581043 2
4.1645889 -6.7581043 2.05
4.1645889 -6.7581043 2.0999999
4.1645889 -6.7581043 2.1500001
4.1645889 -6.7581043 2.2
4.1645889 -6.7581043 2.25
4.1645889 -6.7581043 2.3
4.1645889 -6.7581043 2.3499999
4.1645889 -6.7581043 2.4000001
4.1645889 -6.7581043 2.45
4.1645889 -6.7581043 2.5
4.1645889 -6.7581043 2.55
4.1645889 -6.7581043 2.5999999
4.1645889 -6.8079796 0.050000001
4.1645889 -6.8079796 0.1
4.1645889 -6.8079796 0.15000001
4.1645889 -6.8079796 0.2
4.1645889 -6.8079796 0.25
4.1645889 -6.8079796 0.30000001
4.1645889 -6.8079796 0.35000002
4.1645889 -6.8079796 0.40000001
4.1645889 -6.8079796 0.45000002
4.1645889 -6.8079796 0.5
4.1645889 -6.8079796 0.55000001
4.1645889 -6.8079796 0.60000002
4.1645889 -6.8079796 0.65000004
4.1645889 -6.8079796 0.70000005
4.1645889 -6.8079796 0.75
4.1645889 -6.8079796 0.80000001
4.1645889 -6.8079796 0.85000002
4.1645889 -6.8079796 0.90000004
4.1645889 -6.8079796 0.95000005
4.1645889 -6.8079796 1
4.1645889 -6.8079796 1.05
4.1645889 -6.8079796 1.1
4.1645889 -6.8079796 1.15
4.1645889 -6.8079796 1.1999999
4.1645889 -6.8079796 1.25
4.1645889 -6.8079796 1.3
4.1645889 -6.8079796 1.35
4.1645889 -6.8079796 1.4
4.1645889 -6.8079796 1.4499999
4.1645889 -6.8079796 1.5
4.1645889 -6.8079796 1.55
4.1645889 -6.8079796 1.6
4.1645889 -6.8079796 1.65
4.1645889 -6.8079796 1.6999999
4.1645889 -6.8079796 1.75
4.1645889 -6.8079796 1.8
4.1645889 -6.8079796 1.85
4.1645889 -6.8079796 1.9
4.1645889 -6.8079796 1.9499999
4.1645889 -6.8079796 2
4.1645889 -6.8079796 2.05
4.1645889 -6.8079796 2.0999999
4.1645889 -6.8079796 2.1500001
4.1645889 -6.8079796 2.2
4.1645889 -6.8079796 2.25
4.1645889 -6.8079796 2.3
4.1645889 -6.8079796 2.3499999
4.1645889 -6.8079796 2.4000001
4.1645889 -6.8079796 2.45
4.1645889 -6.8079796 2.5
4.1645889 -6.8079796 2.55
4.1645889 -6.8079796 2.5999999
4.1645889 -6.8578548 0.050000001
4.1645889 -6.8578548 0.1
4.1645889 -6.8578548 0.15000001
4.1645889 -6.8578548 0.2
4.1645889 -6.8578548 0.25
4.1645889 -6.8578548 0.30000001
4.1645889 -6.8578548 0.35000002
4.1645889 -6.8578548 0.40000001
4.1645889 -6.8578548 0.45000002
4.1645889 -6.8578548 0.5
4.1645889 -6.8578548 0.55000001
4.1645889 -6.8578548 0.60000002
4.1645889 -6.8578548 0.65000004
4.1645889 -6.8578548 0.70000005
4.1645889 -6.8578548 0.75
4.1645889 -6.8578548 0.80000001
4.1645889 -6.8578548 0.85000002
4.1645889 -6.8578548 0.90000004
4.1645889 -6.8578548 0.95000005
4.1645889 -6.8578548 1
4.1645889 -6.8578548 1.05
4.1645889 -6.8578548 1.1
4.1645889 -6.8578548 1.15
4.1645889 -6.8578548 1.1999999
4.1645889 -6.8578548 1.25
4.1645889 -6.8578548 1.3
4.1645889 -6.8578548 1.35
4.1645889 -6.8578548 1.4
4.1645889 -6.8578548 1.4499999
4.1645889 -6.8578548 1.5
4.1645889 -6.8578548 1.55
4.1645889 -6.8578548 1.6
4.1645889 -6.8578548 1.65
4.1645889 -6.8578548 1.6999999
4.1645889 -6.8578548 1.75
4.1645889 -6.8578548 1.8
4.1645889 -6.8578548 1.85
4.1645889 -6.8578548 1.9
4.1645889 -6.8578548 1.9499999
4.1645889 -6.8578548 2
4.1645889 -6.8578548 2.05
4.1645889 -6.8578548 2.0999999
4.1645889 -6.8578548 2.1500001
4.1645889 -6.8578548 2.2
4.1645889 -6.8578548 2.25
4.1645889 -6.8578548 2.3
4.1645889 -6.8578548 2.3499999
4.1645889 -6.8578548 2.4000001
4.1645889 -6.8578548 2.45
4.1645889 -6.8578548 2.5
4.1645889 -6.8578548 2.55
4.1645889 -6.8578548 2.5999999
4.1645889 -6.9077301 0.050000001
4.1645889 -6.9077301 0.1
4.1645889 -6.9077301 0.15000001
4.1645889 -6.9077301 0.2
4.1645889 -6.9077301 0.25
4.1645889 -6.9077301 0.30000001
4.1645889 -6.9077301 0.35000002
4.1645889 -6.9077301 0.40000001
4.1645889 -6.9077301 0.45000002
4.1645889 -6.9077301 0.5
4.1645889 -6.9077301 0.55000001
4.1645889 -6.9077301 0.60000002
4.1645889 -6.9077301 0.65000004
4.1645889 -6.9077301 0.70000005
4.1645889 -6.9077301 0.75
4.1645889 -6.9077301 0.80000001
4.1645889 -6.9077301 0.85000002
4.1645889 -6.9077301 0.90000004
4.1645889 -6.9077301 0.95000005
4.1645889 -6.9077301 1
4.1645889 -6.9077301 1.05
4.1645889 -6.9077301 1.1
4.1645889 -6.9077301 1.15
4.1645889 -6.9077301 1.1999999
4.1645889 -6.9077301 1.25
4.1645889 -6.9077301 1.3
4.1645889 -6.9077301 1.35
4.1645889 -6.9077301 1.4
